# .PCD v0.7 - Point Cloud Data file format
VERSION 0.7
FIELDS x y z
SIZE 4 4 4
TYPE F F F
COUNT 1 1 1
WIDTH 1575
HEIGHT 1
VIEWPOINT 0 0 0 1 0 0 0
POINTS 1575
DATA ascii
-17.7166 -11.8103 -488.811
-18.617399 -11.8451 -490.29199
-19.5464 -11.8973 -492.41299
-20.5294 -11.9756 -495.61499
20.529301 -11.1202 -495.61499
19.5464 -11.0475 -492.41299
18.617399 -10.9989 -490.29199
17.7166 -10.9667 -488.811
16.8269 -10.9378 -487.48499
15.9509 -10.9142 -486.40799
15.081 -10.8917 -485.41699
14.2191 -10.8726 -484.612
13.36 -10.8541 -483.81
12.5092 -10.8401 -483.185
11.6613 -10.8268 -482.58701
10.8159 -10.8138 -482.008
9.9750004 -10.8038 -481.57199
9.1356201 -10.7939 -481.13699
8.2978697 -10.7844 -480.71399
7.4628201 -10.7783 -480.41699
6.6287899 -10.7723 -480.121
5.7957902 -10.7659 -479.82501
4.96596 -10.7611 -479.633
4.1371498 -10.7566 -479.461
3.3089399 -10.7524 -479.289
2.4813299 -10.75 -479.17001
1.65402 -10.7489 -479.11301
0.826913 -10.7477 -479.05701
-1.89507e-006 -10.7462 -479
-0.82691699 -10.7473 -479.05701
-1.65403 -10.7485 -479.11301
-2.4813299 -10.7498 -479.17001
-3.3089499 -10.753 -479.289
-4.1371598 -10.7574 -479.461
-4.96596 -10.7619 -479.633
-5.7958002 -10.7658 -479.82501
-6.6287899 -10.7718 -480.121
-7.4628201 -10.7779 -480.41699
-8.2978802 -10.7843 -480.71399
-9.1356201 -10.794 -481.13699
-9.9750099 -10.8039 -481.57199
-10.8159 -10.8138 -482.008
-11.6613 -10.8267 -482.58701
-12.5092 -10.8401 -483.185
-13.36 -10.8542 -483.81
-14.2191 -10.8732 -484.612
-15.081 -10.8921 -485.418
-15.9509 -10.9138 -486.40799
-16.8269 -10.9375 -487.48499
-17.7166 -10.9666 -488.811
-18.617399 -10.9989 -490.29199
-19.5464 -11.0475 -492.41299
-20.5294 -11.1202 -495.61499
20.529301 -10.2648 -495.61499
19.5464 -10.1976 -492.41299
18.617399 -10.1527 -490.29199
17.7166 -10.1231 -488.811
16.8269 -10.0964 -487.48499
15.9509 -10.0747 -486.40799
15.081 -10.054 -485.41699
14.2191 -10.0363 -484.612
13.36 -10.0191 -483.81
12.5092 -10.0062 -483.185
11.6613 -9.9938498 -482.58701
10.8159 -9.9818602 -482.008
9.9750004 -9.9726696 -481.57199
9.1356201 -9.9634895 -481.13699
8.2978697 -9.95469 -480.71399
7.4628201 -9.9491596 -480.41699
6.6287899 -9.9436398 -480.121
5.7957902 -9.9378004 -479.82501
4.96596 -9.9333296 -479.633
4.1371498 -9.9291697 -479.461
3.3089399 -9.9251804 -479.289
2.4813299 -9.9230003 -479.17001
1.65402 -9.9219503 -479.11301
0.826913 -9.9209003 -479.05701
-1.89507e-006 -9.9194403 -479
-0.82691699 -9.9204903 -479.05701
-1.65403 -9.9215498 -479.11301
-2.4813299 -9.9227505 -479.17001
-3.3089499 -9.9257402 -479.289
-4.1371598 -9.9299002 -479.461
-4.96596 -9.9340601 -479.633
-5.7958002 -9.9377098 -479.82501
-6.6287899 -9.9432201 -480.121
-7.4628201 -9.94874 -480.41699
-8.2978802 -9.9546404 -480.71399
-9.1356201 -9.9635496 -481.13699
-9.9750099 -9.9727201 -481.57199
-10.8159 -9.9818602 -482.008
-11.6613 -9.9938097 -482.58701
-12.5092 -10.0061 -483.185
-13.36 -10.0192 -483.81
-14.2191 -10.0368 -484.612
-15.081 -10.0543 -485.418
-15.9509 -10.0744 -486.40799
-16.8269 -10.0961 -487.48499
-17.7166 -10.123 -488.811
-18.617399 -10.1527 -490.29199
-19.5464 -10.1976 -492.41299
-20.5294 -10.2649 -495.61499
20.529301 -9.4094801 -495.61499
19.5464 -9.3477602 -492.41299
18.617399 -9.30651 -490.29199
17.7166 -9.2794304 -488.811
16.8269 -9.2550697 -487.48499
15.9509 -9.2352505 -486.40799
15.081 -9.2162399 -485.41699
14.2191 -9.1999302 -484.612
13.36 -9.1840401 -483.81
12.5092 -9.1722403 -483.185
11.6613 -9.1609402 -482.58701
10.8159 -9.14995 -482.008
9.9750004 -9.14151 -481.57199
9.1356201 -9.13309 -481.13699
8.2978697 -9.1250095 -480.71399
7.4628201 -9.1199903 -480.41699
6.6287899 -9.1149797 -480.121
5.7957902 -9.1097002 -479.82501
4.96596 -9.1055603 -479.633
4.1371498 -9.1016903 -479.461
3.3089399 -9.09793 -479.289
2.4813299 -9.0959597 -479.17001
1.65402 -9.0950098 -479.11301
0.826913 -9.0940504 -479.05701
-1.89507e-006 -9.0927296 -479
-0.82691699 -9.0936804 -479.05701
-1.65403 -9.0946398 -479.11301
-2.4813299 -9.0957098 -479.17001
-3.3089499 -9.0984898 -479.289
-4.1371598 -9.1023598 -479.461
-4.96596 -9.1062202 -479.633
-5.7958002 -9.1096001 -479.82501
-6.6287899 -9.1146097 -480.121
-7.4628201 -9.1196203 -480.41699
-8.2978802 -9.1249599 -480.71399
-9.1356201 -9.1331396 -481.13699
-9.9750099 -9.1415596 -481.57199
-10.8159 -9.1499596 -482.008
-11.6613 -9.1609001 -482.58701
-12.5092 -9.1722002 -483.185
-13.36 -9.1841803 -483.81
-14.2191 -9.2004299 -484.612
-15.081 -9.2165699 -485.418
-15.9509 -9.23493 -486.40799
-16.8269 -9.2547703 -487.48499
-17.7166 -9.2793703 -488.811
-18.617399 -9.30651 -490.29199
-19.546499 -9.3477402 -492.41299
-20.5294 -9.4095602 -495.61499
20.529301 -8.5541296 -495.61499
19.5464 -8.4979095 -492.41299
18.617399 -8.4603205 -490.29199
17.7166 -8.4357901 -488.811
16.8269 -8.4137297 -487.48499
15.9509 -8.3957701 -486.40799
15.081 -8.3785 -485.41699
14.2191 -8.3635798 -484.612
13.36 -8.34902 -483.81
12.5092 -8.3382998 -483.185
11.6613 -8.3280296 -482.58701
10.8159 -8.3180504 -482.008
9.9750004 -8.31036 -481.57199
9.1356201 -8.3026896 -481.13699
8.2978697 -8.29533 -480.71399
7.4628201 -8.2908297 -480.41699
6.6287899 -8.2863302 -480.121
5.7957902 -8.2815905 -479.82501
4.96596 -8.2777796 -479.633
4.1371498 -8.2742205 -479.461
3.3089399 -8.27069 -479.289
2.4813299 -8.2689199 -479.17001
1.65402 -8.2680597 -479.11301
0.826913 -8.2672005 -479.05701
-1.89507e-006 -8.2660198 -479
-0.82691699 -8.26688 -479.05701
-1.65403 -8.2677298 -479.11301
-2.4813299 -8.2686596 -479.17001
-3.3089499 -8.2712498 -479.289
-4.1371598 -8.2748098 -479.461
-4.96596 -8.2783804 -479.633
-5.7958002 -8.2814999 -479.82501
-6.6287899 -8.2859898 -480.121
-7.4628201 -8.2904902 -480.41699
-8.2978802 -8.2952805 -480.71399
-9.1356201 -8.3027296 -481.13699
-9.9750099 -8.3104 -481.57199
-10.8159 -8.3180599 -482.008
-11.6613 -8.3280001 -482.58701
-12.5092 -8.3382702 -483.185
-13.36 -8.3491602 -483.81
-14.2191 -8.3640299 -484.612
-15.081 -8.37883 -485.418
-15.9509 -8.3954802 -486.40799
-16.8269 -8.4134398 -487.48499
-17.7166 -8.4357405 -488.811
-18.617399 -8.46031 -490.29199
-19.546499 -8.4978905 -492.41299
-20.5294 -8.5542202 -495.61499
20.529301 -7.6987901 -495.61499
19.5464 -7.6480598 -492.41299
18.617399 -7.61413 -490.29199
17.7166 -7.5921602 -488.811
16.8269 -7.5723901 -487.48499
15.9509 -7.5562801 -486.40799
15.081 -7.54076 -485.41699
14.2191 -7.5272198 -484.612
13.36 -7.5139999 -483.81
12.5092 -7.5043602 -483.185
11.6613 -7.49512 -482.58701
10.8159 -7.4861398 -482.008
9.9750004 -7.4792099 -481.57199
9.1356201 -7.47228 -481.13699
8.2978697 -7.4656501 -480.71399
7.4628201 -7.4616599 -480.41699
6.6287899 -7.4576702 -480.121
5.7957902 -7.4534898 -479.82501
4.96596 -7.4500098 -479.633
4.1371498 -7.4467402 -479.461
3.3089399 -7.44347 -479.289
2.4813299 -7.4418802 -479.17001
1.65402 -7.4411201 -479.11301
0.826913 -7.4403601 -479.05701
-1.89507e-006 -7.4393101 -479
-0.82691699 -7.4400702 -479.05701
-1.65403 -7.4408302 -479.11301
-2.4813299 -7.4416199 -479.17001
-3.3089499 -7.4439998 -479.289
-4.1371598 -7.4472699 -479.461
-4.96596 -7.4505401 -479.633
-5.7958002 -7.4533901 -479.82501
-6.6287899 -7.4573798 -480.121
-7.4628201 -7.46136 -480.41699
-8.2978802 -7.4656 -480.71399
-9.1356201 -7.4723201 -481.13699
-9.9750099 -7.47925 -481.57199
-10.8159 -7.4861498 -482.008
-11.6613 -7.4951 -482.58701
-12.5092 -7.5043302 -483.185
-13.36 -7.5141401 -483.81
-14.2191 -7.5276299 -484.612
-15.081 -7.54109 -485.418
-15.9509 -7.5560298 -486.40799
-16.8269 -7.5721402 -487.48499
-17.7166 -7.5921102 -488.811
-18.617399 -7.61412 -490.29199
-19.546499 -7.6480398 -492.41299
-20.5294 -7.6988802 -495.61499
20.529301 -6.8434501 -495.61499
19.5464 -6.7982001 -492.41299
18.617399 -6.76793 -490.29199
17.7166 -6.7485199 -488.811
16.8269 -6.73105 -487.48499
15.9509 -6.7168002 -486.40799
15.081 -6.7030101 -485.41699
14.2191 -6.6908698 -484.612
13.36 -6.6789899 -483.81
12.5092 -6.6704202 -483.185
11.6613 -6.66222 -482.58701
10.8159 -6.6542401 -482.008
9.9750004 -6.6480498 -481.57199
9.1356201 -6.64188 -481.13699
8.2978697 -6.6359801 -480.71399
7.4628201 -6.6325002 -480.41699
6.6287899 -6.6290202 -480.121
5.7957902 -6.6253901 -479.82501
4.96596 -6.6222401 -479.633
4.1371498 -6.6192598 -479.461
3.3089399 -6.6162901 -479.289
2.4813299 -6.61484 -479.17001
1.65402 -6.6141701 -479.11301
0.826913 -6.6135101 -479.05701
-1.89507e-006 -6.6125998 -479
-0.82691699 -6.6132598 -479.05701
-1.65403 -6.6139202 -479.11301
-2.4813299 -6.6145802 -479.17001
-3.3089499 -6.6167498 -479.289
-4.1371598 -6.61972 -479.461
-4.96596 -6.6227002 -479.633
-5.7958002 -6.6252899 -479.82501
-6.6287899 -6.6287599 -480.121
-7.4628201 -6.6322398 -480.41699
-8.2978802 -6.6359301 -480.71399
-9.1356201 -6.6419201 -481.13699
-9.9750099 -6.6480899 -481.57199
-10.8159 -6.6542501 -482.008
-11.6613 -6.66219 -482.58701
-12.5092 -6.6703901 -483.185
-13.36 -6.6791201 -483.81
-14.2191 -6.6912198 -484.612
-15.081 -6.7033501 -485.418
-15.9509 -6.7165799 -486.40799
-16.8269 -6.7308302 -487.48499
-17.7166 -6.7484798 -488.811
-18.617399 -6.76793 -490.29199
-19.546499 -6.7981901 -492.41299
-20.5294 -6.8435302 -495.61499
20.529301 -5.9881101 -495.61499
19.5464 -5.94835 -492.41299
18.617399 -5.9217401 -490.29199
17.7166 -5.90488 -488.811
16.8269 -5.8897099 -487.48499
15.9509 -5.8773198 -486.40799
15.081 -5.8652701 -485.41699
14.2191 -5.8545198 -484.612
13.36 -5.8439698 -483.81
12.5092 -5.8364801 -483.185
11.6613 -5.8293099 -482.58701
10.8159 -5.82233 -482.008
9.9750004 -5.8168998 -481.57199
9.1356201 -5.81148 -481.13699
8.2978697 -5.8063002 -480.71399
7.4628201 -5.8033299 -480.41699
6.6287899 -5.8003702 -480.121
5.7957902 -5.7972798 -479.82501
4.96596 -5.7944598 -479.633
4.1371498 -5.79179 -479.461
3.3089399 -5.7891102 -479.289
2.4813299 -5.7877998 -479.17001
1.65402 -5.78723 -479.11301
0.826913 -5.7866702 -479.05701
-1.89507e-006 -5.7858801 -479
-0.82691699 -5.7864499 -479.05701
-1.65403 -5.7870202 -479.11301
-2.4813299 -5.78758 -479.17001
-3.3089499 -5.7895098 -479.289
-4.1371598 -5.7921801 -479.461
-4.96596 -5.7948599 -479.633
-5.7958002 -5.7971802 -479.82501
-6.6287899 -5.8001499 -480.121
-7.4628201 -5.8031101 -480.41699
-8.2978802 -5.8062501 -480.71399
-9.1356201 -5.8115101 -481.13699
-9.9750099 -5.8169298 -481.57199
-10.8159 -5.82234 -482.008
-11.6613 -5.8292899 -482.58701
-12.5092 -5.8364601 -483.185
-13.36 -5.8441 -483.81
-14.2191 -5.8548198 -484.612
-15.081 -5.8655701 -485.418
-15.9509 -5.87713 -486.40799
-16.8269 -5.8895202 -487.48499
-17.7166 -5.90485 -488.811
-18.617399 -5.9217401 -490.29199
-19.546499 -5.9483299 -492.41299
-20.5294 -5.9881902 -495.61499
20.529301 -5.1327701 -495.61499
19.5464 -5.0984902 -492.41299
18.617399 -5.0755501 -490.29199
17.7166 -5.0612502 -488.811
16.8269 -5.0483599 -487.48499
15.9509 -5.0378299 -486.40799
15.081 -5.0275302 -485.41699
14.2191 -5.0181699 -484.612
13.36 -5.0089502 -483.81
12.5092 -5.0025401 -483.185
11.6613 -4.9963999 -482.58701
10.8159 -4.9904299 -482.008
9.9750004 -4.9857502 -481.57199
9.1356201 -4.9810801 -481.13699
8.2978697 -4.9766202 -480.71399
7.4628201 -4.9741702 -480.41699
6.6287899 -4.9717102 -480.121
5.7957902 -4.9691801 -479.82501
4.96596 -4.9666901 -479.633
4.1371498 -4.9643102 -479.461
3.3089399 -4.9619298 -479.289
2.4813299 -4.9607601 -479.17001
1.65402 -4.96029 -479.11301
0.826913 -4.9598198 -479.05701
-1.89507e-006 -4.9591699 -479
-0.82691699 -4.95964 -479.05701
-1.65403 -4.9601102 -479.11301
-2.4813299 -4.9605799 -479.17001
-3.3089499 -4.9622598 -479.289
-4.1371598 -4.9646401 -479.461
-4.96596 -4.96702 -479.633
-5.7958002 -4.96908 -479.82501
-6.6287899 -4.97153 -480.121
-7.4628201 -4.9739799 -480.41699
-8.2978802 -4.9765701 -480.71399
-9.1356201 -4.9811001 -481.13699
-9.9750099 -4.9857702 -481.57199
-10.8159 -4.9904399 -482.008
-11.6613 -4.9963799 -482.58701
-12.5092 -5.0025201 -483.185
-13.36 -5.0090799 -483.81
-14.2191 -5.0184202 -484.612
-15.081 -5.0277801 -485.418
-15.9509 -5.0376801 -486.40799
-16.8269 -5.0482101 -487.48499
-17.7166 -5.0612202 -488.811
-18.617399 -5.0755401 -490.29199
-19.546499 -5.0984802 -492.41299
-20.5294 -5.1328502 -495.61499
20.529301 -4.2774301 -495.61499
19.5464 -4.2486401 -492.41299
18.617399 -4.2293601 -490.29199
17.7166 -4.2176099 -488.811
16.8269 -4.2070198 -487.48499
15.9509 -4.19835 -486.40799
15.081 -4.1897898 -485.41699
14.2191 -4.1818199 -484.612
13.36 -4.1739302 -483.81
12.5092 -4.1686001 -483.185
11.6613 -4.1634898 -482.58701
10.8159 -4.1585202 -482.008
9.9750004 -4.1545901 -481.57199
9.1356201 -4.1506801 -481.13699
8.2978697 -4.1469402 -480.71399
7.4628201 -4.145 -480.41699
6.6287899 -4.1430602 -480.121
5.7957902 -4.1410699 -479.82501
4.96596 -4.1389198 -479.633
4.1371498 -4.1368399 -479.461
3.3089399 -4.1347599 -479.289
2.4813299 -4.1337099 -479.17001
1.65402 -4.1333399 -479.11301
0.826913 -4.1329699 -479.05701
-1.89507e-006 -4.1324601 -479
-0.82691699 -4.1328301 -479.05701
-1.65403 -4.1332002 -479.11301
-2.4813299 -4.1335702 -479.17001
-3.3089499 -4.1350098 -479.289
-4.1371598 -4.1370902 -479.461
-4.96596 -4.1391702 -479.633
-5.7958002 -4.1409798 -479.82501
-6.6287899 -4.14292 -480.121
-7.4628201 -4.1448598 -480.41699
-8.2978802 -4.1468902 -480.71399
-9.1356201 -4.1506901 -481.13699
-9.9750099 -4.1546102 -481.57199
-10.8159 -4.1585302 -482.008
-11.6613 -4.1634798 -482.58701
-12.5092 -4.1685801 -483.185
-13.36 -4.1740599 -483.81
-14.2191 -4.1820102 -484.612
-15.081 -4.18999 -485.418
-15.9509 -4.1982298 -486.40799
-16.8269 -4.2069001 -487.48499
-17.7166 -4.2175899 -488.811
-18.617399 -4.2293501 -490.29199
-19.546499 -4.24863 -492.41299
-20.5294 -4.2775102 -495.61499
20.529301 -3.4220901 -495.61499
19.5464 -3.3987801 -492.41299
18.617399 -3.3831601 -490.29199
17.7166 -3.37397 -488.811
16.8269 -3.36568 -487.48499
15.9509 -3.35887 -486.40799
15.081 -3.3520501 -485.41699
14.2191 -3.3454599 -484.612
13.36 -3.3389101 -483.81
12.5092 -3.3346601 -483.185
11.6613 -3.33059 -482.58701
10.8159 -3.3266201 -482.008
9.9750004 -3.3234401 -481.57199
9.1356201 -3.3202701 -481.13699
8.2978697 -3.31727 -480.71399
7.4628201 -3.31584 -480.41699
6.6287899 -3.31441 -480.121
5.7957902 -3.3129699 -479.82501
4.96596 -3.3111401 -479.633
4.1371498 -3.30936 -479.461
3.3089399 -3.30758 -479.289
2.4813299 -3.30667 -479.17001
1.65402 -3.3064001 -479.11301
0.826913 -3.3061299 -479.05701
-1.89507e-006 -3.3057499 -479
-0.82691699 -3.30602 -479.05701
-1.65403 -3.3062999 -479.11301
-2.4813299 -3.3065701 -479.17001
-3.3089499 -3.30777 -479.289
-4.1371598 -3.30955 -479.461
-4.96596 -3.3113301 -479.633
-5.7958002 -3.31287 -479.82501
-6.6287899 -3.3143001 -480.121
-7.4628201 -3.3157301 -480.41699
-8.2978802 -3.31722 -480.71399
-9.1356201 -3.3202901 -481.13699
-9.9750099 -3.3234601 -481.57199
-10.8159 -3.3266301 -482.008
-11.6613 -3.33058 -482.58701
-12.5092 -3.33465 -483.185
-13.36 -3.33904 -483.81
-14.2191 -3.3456099 -484.612
-15.081 -3.35219 -485.418
-15.9509 -3.3587799 -486.40799
-16.8269 -3.3655901 -487.48499
-17.7166 -3.37396 -488.811
-18.617399 -3.3831601 -490.29199
-19.546499 -3.3987801 -492.41299
-20.5294 -3.4221699 -495.61499
20.529301 -2.56675 -495.61499
19.5464 -2.5489299 -492.41299
18.617399 -2.5369699 -490.29199
17.7166 -2.53034 -488.811
16.8269 -2.5243399 -487.48499
15.9509 -2.5193901 -486.40799
15.081 -2.5143099 -485.41699
14.2191 -2.50911 -484.612
13.36 -2.5039301 -483.81
12.5092 -2.50072 -483.185
11.6613 -2.4976799 -482.58701
10.8159 -2.49471 -482.008
9.9750004 -2.49229 -481.57199
9.1356201 -2.4898701 -481.13699
8.2978697 -2.4875901 -480.71399
7.4628201 -2.48667 -480.41699
6.6287899 -2.48575 -480.121
5.7957902 -2.4848399 -479.82501
4.96596 -2.4833701 -479.633
4.1371498 -2.4818799 -479.461
3.3089399 -2.4804001 -479.289
2.4813299 -2.47963 -479.17001
1.65402 -2.47946 -479.11301
0.826913 -2.47928 -479.05701
-1.89507e-006 -2.4790399 -479
-0.82691699 -2.4792199 -479.05701
-1.65403 -2.4793899 -479.11301
-2.4813299 -2.4795699 -479.17001
-3.3089499 -2.48052 -479.289
-4.1371598 -2.4820001 -479.461
-4.96596 -2.48349 -479.633
-5.7958002 -2.4847701 -479.82501
-6.6287899 -2.4856801 -480.121
-7.4628201 -2.4865999 -480.41699
-8.2978802 -2.48754 -480.71399
-9.1356201 -2.4898801 -481.13699
-9.9750099 -2.4923 -481.57199
-10.8159 -2.49472 -482.008
-11.6613 -2.4976699 -482.58701
-12.5092 -2.50071 -483.185
-13.36 -2.50403 -483.81
-14.2191 -2.5092001 -484.612
-15.081 -2.5144 -485.418
-15.9509 -2.51933 -486.40799
-16.8269 -2.5242801 -487.48499
-17.7166 -2.5303299 -488.811
-18.617399 -2.5369699 -490.29199
-19.546499 -2.5489199 -492.41299
-20.5294 -2.5668199 -495.61499
20.529301 -1.7114 -495.61499
19.5464 -1.69907 -492.41299
18.617399 -1.69078 -490.29199
17.7166 -1.6867 -488.811
16.8269 -1.683 -487.48499
15.9509 -1.6799001 -486.40799
15.081 -1.6765701 -485.41699
14.2191 -1.67276 -484.612
13.36 -1.66897 -483.81
12.5092 -1.66678 -483.185
11.6613 -1.66477 -482.58701
10.8159 -1.66281 -482.008
9.9750004 -1.66114 -481.57199
9.1356201 -1.65947 -481.13699
8.2978697 -1.65791 -480.71399
7.4628201 -1.65751 -480.41699
6.6287899 -1.6571 -480.121
5.7957902 -1.6567 -479.82501
4.96596 -1.6556 -479.633
4.1371498 -1.65441 -479.461
3.3089399 -1.6532201 -479.289
2.4813299 -1.65259 -479.17001
1.65402 -1.65251 -479.11301
0.826913 -1.65244 -479.05701
-1.89507e-006 -1.65233 -479
-0.82691699 -1.65241 -479.05701
-1.65403 -1.65248 -479.11301
-2.4813299 -1.65256 -479.17001
-3.3089499 -1.65327 -479.289
-4.1371598 -1.65446 -479.461
-4.96596 -1.65565 -479.633
-5.7958002 -1.65666 -479.82501
-6.6287899 -1.65707 -480.121
-7.4628201 -1.65748 -480.41699
-8.2978802 -1.6578799 -480.71399
-9.1356201 -1.65947 -481.13699
-9.9750099 -1.66114 -481.57199
-10.8159 -1.66281 -482.008
-11.6613 -1.66477 -482.58701
-12.5092 -1.66677 -483.185
-13.36 -1.66901 -483.81
-14.2191 -1.6727999 -484.612
-15.081 -1.67661 -485.418
-15.9509 -1.67988 -486.40799
-16.8269 -1.68297 -487.48499
-17.7166 -1.6867 -488.811
-18.617399 -1.69077 -490.29199
-19.546499 -1.69907 -492.41299
-20.5294 -1.71144 -495.61499
20.566099 -0.85699803 -496.5
19.5578 -0.84984899 -492.702
18.6278 -0.84513098 -490.569
17.7248 -0.84336698 -489.035
16.833099 -0.841887 -487.66699
15.9569 -0.84065199 -486.59201
15.0859 -0.83918101 -485.57599
14.2238 -0.83676797 -484.77301
13.3645 -0.83436298 -483.97299
12.5129 -0.83313102 -483.32999
11.6648 -0.83216101 -482.733
10.8189 -0.83115 -482.142
9.9777899 -0.83023298 -481.707
9.1381798 -0.82931799 -481.27301
8.3001099 -0.82845902 -480.84201
7.4648299 -0.828565 -480.54501
6.6305799 -0.82867098 -480.24899
5.7973599 -0.82877702 -479.953
4.9672098 -0.82803202 -479.75601
4.1381998 -0.82713997 -479.58499
3.3097799 -0.826249 -479.41299
2.48192 -0.825782 -479.29199
1.65441 -0.82580203 -479.23499
0.827088 -0.82582301 -479.17899
-1.86766e-006 -0.82585698 -479.12201
-0.82712698 -0.82583803 -479.17899
-1.6544501 -0.82581699 -479.23499
-2.4819601 -0.82579702 -479.29199
-3.3097501 -0.82627398 -479.41299
-4.1381798 -0.82716501 -479.58499
-4.9671898 -0.82805699 -479.75601
-5.79737 -0.82872701 -479.953
-6.63059 -0.82862097 -480.24899
-7.4648399 -0.82851601 -480.54501
-8.3001099 -0.82843399 -480.84201
-9.1381702 -0.82934898 -481.27301
-9.9777803 -0.83026499 -481.707
-10.8189 -0.83117998 -482.142
-11.6648 -0.83211499 -482.733
-12.5129 -0.833085 -483.32999
-13.3645 -0.83441198 -483.97299
-14.2238 -0.83681601 -484.77301
-15.0859 -0.83922797 -485.57599
-15.9569 -0.84065801 -486.59201
-16.833099 -0.84189397 -487.66699
-17.7248 -0.84332597 -489.035
-18.627701 -0.84515297 -490.569
-19.557699 -0.84987003 -492.702
-20.566099 -0.85700202 -496.5
19.652399 -0.00041678999 -495.07401
18.6887 0.00081526401 -492.19299
17.768801 0.00111766 -490.24301
16.8708 8.39653e-005 -488.76501
15.9884 -0.00041108401 -487.561
15.1142 -0.00103117 -486.48499
14.248 -0.000570765 -485.595
13.3872 0.00045576901 -484.79199
12.5314 0.00082875002 -484.05701
11.682 0.00076675601 -483.457
10.8347 0.00070490898 -482.85901
9.9914398 0.0010723301 -482.36801
9.1506701 0.00123848 -481.93301
8.3114204 0.0014043 -481.49799
7.4745402 0.000801521 -481.164
6.6392202 0.000183089 -480.866
5.8049202 -0.00043458701 -480.569
4.9732399 -3.0094499e-005 -480.34799
4.1431999 0.00056615 -480.17599
3.31376 0.00116196 -480.004
2.48476 0.0013713 -479.871
1.65624 0.00125287 -479.814
0.827923 0.00113445 -479.758
-1.86992e-006 0.00093320198 -479.70099
-0.82812703 0.00104993 -479.758
-1.65645 0.00116832 -479.814
-2.4849601 0.00128676 -479.871
-3.3136101 0.00101664 -480.004
-4.1430602 0.00042090699 -480.17599
-4.9730902 -0.000175243 -480.34799
-5.8049698 -0.000148162 -480.57001
-6.6392698 0.00046968399 -480.866
-7.4745898 0.0010883 -481.164
-8.3113203 0.00121168 -481.49799
-9.1505804 0.00104587 -481.93201
-9.9913502 0.00087977201 -482.36801
-10.8348 0.00098403997 -482.85901
-11.6821 0.00104589 -483.457
-12.5315 0.0011079099 -484.05701
-13.3873 0.000160679 -484.79199
-14.2481 -0.00086555502 -485.595
-15.1139 -0.0010752 -486.48499
-15.988 -0.00045511301 -487.56
-16.871201 0.00034222199 -488.76599
-17.7693 0.0013762 -490.24399
-18.6882 0.00066771801 -492.19101
-19.6525 -0.00040968601 -495.07401
18.760799 0.852772 -494.10101
17.8214 0.84972298 -491.685
16.912701 0.84618199 -489.97101
16.019899 0.84318203 -488.53299
15.144 0.84069598 -487.45401
14.2723 0.838467 -486.42001
13.41 0.83810502 -485.61401
12.5507 0.83739799 -484.811
11.6992 0.83619797 -484.18399
10.8506 0.83510101 -483.58401
10.0051 0.83466297 -483.03101
9.1631899 0.83407497 -482.59399
8.3227797 0.833489 -482.159
7.4842901 0.83230501 -481.784
6.6478801 0.83117199 -481.48499
5.8125 0.83003902 -481.18799
4.97929 0.83001798 -480.94199
4.1482201 0.83031702 -480.76901
3.31775 0.830616 -480.59698
2.4876001 0.83052599 -480.452
1.65808 0.83030999 -480.39499
0.82875901 0.83009303 -480.33801
-1.87218e-006 0.82972401 -480.28101
-0.82912898 0.82993901 -480.33801
-1.65845 0.83015501 -480.39499
-2.4877801 0.83045399 -480.452
-3.3174801 0.83034998 -480.59698
-4.1479502 0.830051 -480.76901
-4.9790602 0.829795 -480.94199
-5.8125901 0.83056402 -481.18799
-6.6479702 0.83169699 -481.48599
-7.4843702 0.83280301 -481.784
-8.3226004 0.83313501 -482.15799
-9.1630201 0.83372098 -482.59399
-10.005 0.83443201 -483.03101
-10.8508 0.83561498 -483.58401
-11.6994 0.836712 -484.18399
-12.5507 0.83720201 -484.81
-13.4102 0.83756202 -485.61301
-14.2723 0.83822799 -486.41901
-15.1434 0.84061402 -487.453
-16.0198 0.84315598 -488.53299
-16.913601 0.84666198 -489.97299
-17.820499 0.84944499 -491.68201
-18.7609 0.85278499 -494.10101
18.8906 1.7178299 -497.51901
17.879801 1.70322 -493.31601
16.954901 1.69647 -491.18399
16.0576 1.69031 -489.70001
15.1739 1.68578 -488.42599
14.2998 1.68142 -487.34698
13.4329 1.6786 -486.439
12.5719 1.67685 -485.633
11.7165 1.67414 -484.91199
10.8666 1.6720099 -484.311
10.0191 1.6705 -483.711
9.1757498 1.6691999 -483.258
8.3341703 1.66786 -482.82101
7.49405 1.6659499 -482.405
6.6565599 1.6643 -482.10599
5.8200998 1.66265 -481.80801
4.9853501 1.66212 -481.53699
4.1532502 1.66212 -481.36401
3.3217499 1.66212 -481.19101
2.4904499 1.66169 -481.034
1.65992 1.6613801 -480.97699
0.829597 1.66106 -480.92001
-1.87445e-006 1.66052 -480.86301
-0.83013302 1.66084 -480.92001
-1.66046 1.66115 -480.97699
-2.4905601 1.6616499 -481.034
-3.3213501 1.6617301 -481.19101
-4.1528502 1.6617301 -481.36401
-4.98523 1.6619999 -481.53699
-5.82023 1.66342 -481.80801
-6.6566901 1.6650701 -482.10699
-7.4940901 1.6661299 -482.405
-8.33391 1.66734 -482.82001
-9.1754999 1.66869 -483.258
-10.0191 1.67062 -483.711
-10.8669 1.67276 -484.311
-11.7167 1.67468 -484.91299
-12.5722 1.67606 -485.63199
-13.4331 1.67781 -486.43799
-14.2991 1.6813101 -487.34601
-15.173 1.68566 -488.42499
-16.0588 1.69101 -489.703
-16.954901 1.6964999 -491.18399
-17.879101 1.70301 -493.314
-18.8916 1.71779 -497.52701
17.9667 2.5660501 -495.702
17.0114 2.5523 -492.80499
16.097601 2.5422101 -490.91101
15.2047 2.5342801 -489.43201
14.3281 2.5280099 -488.319
13.4558 2.52196 -487.26599
12.5934 2.5188 -486.45801
11.7341 2.5146699 -485.651
10.8827 2.51143 -485.04001
10.0337 2.50863 -484.43799
9.1883402 2.5066299 -483.923
8.3455896 2.50453 -483.48499
7.5040798 2.5018599 -483.047
6.6652699 2.4995899 -482.729
5.8277202 2.4974201 -482.42899
4.9914198 2.49628 -482.133
4.1582999 2.49598 -481.95999
3.3257699 2.4956901 -481.78699
2.4933 2.4948699 -481.61801
1.66177 2.4944601 -481.561
0.830437 2.49404 -481.50299
-1.87672e-006 2.49334 -481.44601
-0.83113998 2.4937501 -481.50299
-1.66247 2.4941599 -481.56
-2.49334 2.4948599 -481.61801
-3.3252399 2.4951701 -481.78601
-4.1577702 2.49547 -481.95901
-4.9914198 2.4962699 -482.133
-5.8278899 2.49842 -482.42999
-6.6654301 2.50056 -482.729
-7.5040302 2.50175 -483.047
-8.3452597 2.50385 -483.48401
-9.1881304 2.5062001 -483.923
-10.034 2.5092399 -484.439
-10.8831 2.5124199 -485.04099
-11.7341 2.5146101 -485.651
-12.5937 2.51776 -486.457
-13.4558 2.5218 -487.26599
-14.327 2.5278499 -488.31699
-15.205 2.53444 -489.43301
-16.0989 2.54298 -490.914
-17.0096 2.5517499 -492.79999
-17.966801 2.5660701 -495.703
17.077299 3.4152801 -494.72699
16.1439 3.3993399 -492.293
15.2413 3.3870201 -490.63901
14.3565 3.37797 -489.29401
13.4822 3.3697901 -488.211
12.6149 3.36362 -487.285
11.754 3.3585401 -486.47601
10.8987 3.35339 -485.771
10.0484 3.3492801 -485.16699
9.2009697 3.34637 -484.591
8.3570499 3.3434999 -484.151
7.51441 3.3401401 -483.71201
6.6739898 3.3370299 -483.353
5.8353701 3.3343301 -483.05301
4.9979401 3.33269 -482.754
4.1633501 3.3319099 -482.55701
3.32973 3.33126 -482.384
2.4962001 3.3301201 -482.20999
1.66362 3.32956 -482.14499
0.83140898 3.32899 -482.08801
-1.879e-006 3.3281701 -482.03101
-0.83214903 3.32868 -482.08801
-1.66432 3.3292699 -482.14499
-2.49617 3.33008 -482.20999
-3.3291299 3.3306799 -482.383
-4.16289 3.33146 -482.55701
-4.9979801 3.33289 -482.754
-5.8355699 3.3355801 -483.05301
-6.6741099 3.3376801 -483.353
-7.5142398 3.3397901 -483.711
-8.3566303 3.3426499 -484.14999
-9.2009096 3.34624 -484.591
-10.0489 3.3503799 -485.168
-10.899 3.3540399 -485.772
-11.7542 3.35777 -486.47601
-12.6151 3.36272 -487.285
-13.4814 3.3696599 -488.20999
-14.3558 3.3778701 -489.293
-15.2432 3.38818 -490.64301
-16.142599 3.3989301 -492.289
-17.077499 3.4152999 -494.728
17.2083 4.3032598 -498.543
16.197701 4.26266 -493.931
15.2794 4.24476 -491.85501
14.3874 4.2317801 -490.37
13.5094 4.2213202 -489.18701
12.6365 4.2113099 -488.116
11.7739 4.2052698 -487.30399
10.9149 4.1978798 -486.504
10.0632 4.1925998 -485.89899
9.2140999 4.1884999 -485.29599
8.3685303 4.1847801 -484.819
7.5247598 4.1807299 -484.379
6.6827502 4.17664 -483.978
5.84303 4.17342 -483.677
5.0045199 4.1712699 -483.37799
4.1684198 4.16992 -483.15601
3.3336999 4.1689 -482.98199
2.49913 4.16745 -482.80801
1.66548 4.1666999 -482.73199
0.83241898 4.1659598 -482.67401
-1.88129e-006 4.16504 -482.617
-0.833161 4.1656499 -482.67401
-1.6661 4.16644 -482.73199
-2.4990399 4.1673598 -482.80801
-3.33304 4.1682601 -482.98199
-4.1680698 4.16958 -483.15601
-5.00459 4.17169 -483.37799
-5.8432698 4.17487 -483.67801
-6.6827998 4.17696 -483.978
-7.5244699 4.18015 -484.37799
-8.3682203 4.1841502 -484.81799
-9.21422 4.1887898 -485.29599
-10.0638 4.1939602 -485.89999
-10.9149 4.1979499 -486.504
-11.7743 4.2038002 -487.30301
-12.6365 4.2112298 -488.116
-13.508 4.2210999 -489.185
-14.3882 4.2322798 -490.37201
-15.2798 4.2449999 -491.85599
-16.197001 4.2624502 -493.92899
-17.2087 4.3032598 -498.547
16.2766 5.13904 -496.33301
15.3295 5.1100202 -493.418
14.4219 5.09025 -491.58099
13.5361 5.07619 -490.16599
12.6618 5.0641599 -489.078
11.7941 5.0545101 -488.13501
10.9332 5.04597 -487.323
10.0781 5.0385799 -486.633
9.2275696 5.0331702 -486.02802
8.3800497 5.0283999 -485.48901
7.53514 5.0236402 -485.047
6.6915302 5.0184302 -484.60599
5.8507099 5.0146799 -484.30399
5.0111098 5.0120201 -484.00299
4.1735001 5.0100098 -483.75699
3.3376701 5.0086198 -483.582
2.5020599 5.0068598 -483.40701
1.66734 5.0058699 -483.319
0.83343297 5.0049601 -483.26199
-1.88357e-006 5.0039401 -483.20401
-0.83417499 5.0046501 -483.26199
-1.66789 5.00564 -483.319
-2.50192 5.0067201 -483.40701
-3.33705 5.0080099 -483.582
-4.1732602 5.0097699 -483.75699
-5.01122 5.01267 -484.004
-5.8508902 5.01581 -484.30499
-6.6915302 5.0184202 -484.60599
-7.53475 5.02284 -485.04599
-8.3798904 5.02807 -485.48801
-9.2278996 5.0339599 -486.02802
-10.0784 5.03936 -486.633
-10.9333 5.0453401 -487.32199
-11.7943 5.05369 -488.134
-12.6608 5.0640101 -489.07599
-13.5358 5.0761399 -490.16501
-14.4234 5.0912399 -491.58499
-15.3275 5.1093702 -493.41199
-16.276699 5.13906 -496.33301
15.3896 5.9843102 -495.35599
14.4612 5.9549799 -492.901
13.5669 5.9358001 -491.31201
12.6875 5.92063 -490.05701
11.8143 5.90658 -488.96899
10.9518 5.8970599 -488.15399
10.093 5.8871298 -487.36899
9.2410898 5.8804002 -486.76199
8.3915997 5.8743401 -486.16
7.5455499 5.8688798 -485.71799
6.7007599 5.8628898 -485.27499
5.8584099 5.85812 -484.93201
5.0177202 5.85495 -484.63101
4.1785898 5.85219 -484.35901
3.34165 5.85042 -484.18399
2.5050001 5.8483601 -484.008
1.66921 5.8470998 -483.909
0.83444899 5.8460102 -483.85101
-1.88587e-006 5.8448801 -483.793
-0.83503699 5.8457699 -483.85101
-1.66969 5.84689 -483.90799
-2.5048001 5.8481598 -484.008
-3.3412099 5.8499999 -484.18301
-4.1784701 5.8520598 -484.35901
-5.0178599 5.8557901 -484.63101
-5.8585401 5.8589201 -484.93201
-6.7006502 5.8626499 -485.27499
-7.54527 5.86832 -485.71701
-8.3915997 5.87432 -486.16
-9.2414303 5.8812199 -486.763
-10.0931 5.88731 -487.36899
-10.952 5.8962102 -488.15302
-11.8143 5.90658 -488.96899
-12.6867 5.9204898 -490.056
-13.5681 5.9365501 -491.315
-14.4605 5.95473 -492.89801
-15.3898 5.9843302 -495.35599
14.5113 6.8284898 -494.547
13.5993 6.8000598 -492.52701
12.713 6.7804999 -491.04401
11.8384 6.7645502 -489.948
10.9704 6.75106 -488.987
10.1095 6.7392902 -488.172
9.2546501 6.7301898 -487.49799
8.40382 6.7230501 -486.89099
7.5559802 6.7164698 -486.39001
6.7100201 6.7096901 -485.94601
5.8661299 6.7037501 -485.561
5.0243502 6.7000699 -485.259
4.1837001 6.6964698 -484.96201
3.3456399 6.6943202 -484.78699
2.5079501 6.6919498 -484.61099
1.67114 6.6903501 -484.49899
0.83546698 6.6891198 -484.44101
-1.88817e-006 6.68788 -484.383
-0.83581501 6.6889701 -484.44101
-1.6714799 6.6901999 -484.49899
-2.5077 6.6917 -484.61099
-3.3453901 6.6940699 -484.78601
-4.1836801 6.6964502 -484.96201
-5.0244398 6.7005601 -485.26001
-5.86621 6.7042198 -485.56201
-6.7098598 6.7093601 -485.94601
-7.55583 6.7161398 -486.38901
-8.4040098 6.7235098 -486.892
-9.2548504 6.73067 -487.49799
-10.1096 6.7388 -488.172
-10.9706 6.7505698 -488.987
-11.8379 6.7644701 -489.94699
-12.713 6.7805099 -491.04401
-13.6 6.8004799 -492.52899
-14.5107 6.82828 -494.54599
14.5823 7.7185898 -496.965
13.642 7.6736202 -494.02802
12.7433 7.6463699 -492.258
11.8625 7.6259699 -490.931
10.9896 7.6080899 -489.83801
10.1267 7.5947599 -489.00601
9.26826 7.5825601 -488.23599
8.4161196 7.5743399 -487.62799
7.5664501 7.5664001 -487.064
6.7193098 7.5588398 -486.61899
5.8738699 7.55158 -486.19299
5.0310001 7.54738 -485.89001
4.1891699 7.54319 -485.58801
3.3496399 7.5403299 -485.39099
2.51091 7.5376501 -485.215
1.67318 7.5356102 -485.091
0.83648801 7.5342798 -485.03299
-1.89048e-006 7.5329399 -484.97501
-0.83659601 7.5342302 -485.03299
-1.67329 7.5355601 -485.091
-2.5108399 7.53757 -485.215
-3.34957 7.5402598 -485.39099
-4.1891999 7.5433302 -485.58801
-5.0310302 7.5475202 -485.89001
-5.8738999 7.5517201 -486.19299
-6.7192602 7.5587401 -486.61899
-7.5664101 7.5662999 -487.064
-8.4161797 7.57447 -487.62799
-9.2683096 7.5826898 -488.23599
-10.1268 7.5946298 -489.00601
-10.9895 7.6080799 -489.83801
-11.8624 7.6259499 -490.931
-12.7434 7.6464701 -492.258
-13.6419 7.6735702 -494.02802
-14.5823 7.7185898 -496.965
13.6631 8.53757 -494.758
12.7596 8.5051203 -492.85001
11.8745 8.4815397 -491.44601
11.0009 8.4627399 -490.323
10.1372 8.4478903 -489.45401
9.2781096 8.4343004 -488.66299
8.4236803 8.4230404 -488.034
7.5721502 8.4127903 -487.478
6.7235198 8.4037104 -486.979
5.8785801 8.39709 -486.60901
5.0349302 8.3904696 -486.23901
4.19346 8.3865499 -485.97501
3.35324 8.3839903 -485.763
2.5137501 8.3814402 -485.54999
1.67553 8.3801003 -485.46399
0.83764398 8.3788996 -485.39401
-1.89184e-006 8.3776903 -485.32501
-0.83764797 8.37887 -485.39401
-1.67553 8.3800802 -485.46399
-2.5137601 8.3815098 -485.54999
-3.35324 8.3840704 -485.763
-4.19346 8.3866196 -485.97501
-5.0349302 8.39044 -486.23901
-5.8785901 8.3970499 -486.60901
-6.7235298 8.4036703 -486.979
-7.5721502 8.4127598 -487.478
-8.4236803 8.4230099 -488.034
-9.2781096 8.4343204 -488.66299
-10.1372 8.4479198 -489.45401
-11.0009 8.4627304 -490.323
-11.8745 8.4815302 -491.44601
-12.7596 8.5051403 -492.85001
-13.6631 8.53759 -494.758
13.6631 9.3914804 -494.758
12.7596 9.3556995 -492.85001
11.8745 9.32971 -491.44601
11.0009 9.30898 -490.323
10.1372 9.2925797 -489.45401
9.2781096 9.2776299 -488.66299
8.4236803 9.2653303 -488.034
7.5721502 9.2541199 -487.478
6.7235198 9.2442503 -486.979
5.8785801 9.23699 -486.60901
5.0349302 9.2297401 -486.23901
4.19346 9.2252302 -485.97501
3.35324 9.2223101 -485.763
2.5137501 9.2193899 -485.54999
1.67553 9.2179403 -485.46399
0.83764398 9.2166204 -485.39401
-1.89184e-006 9.2152901 -485.32501
-0.83764797 9.2165499 -485.39401
-1.67553 9.2178802 -485.46399
-2.5137601 9.2195902 -485.54999
-3.35324 9.2225103 -485.763
-4.19346 9.2254295 -485.97501
-5.0349302 9.2296305 -486.23901
-5.8785901 9.2368803 -486.60901
-6.7235298 9.2441502 -486.979
-7.5721502 9.2540398 -487.478
-8.4236803 9.2652502 -488.034
-9.2781096 9.2777004 -488.66299
-10.1372 9.2926502 -489.45401
-11.0009 9.30896 -490.323
-11.8745 9.32969 -491.44601
-12.7596 9.3557501 -492.85001
-13.6631 9.3915195 -494.758
13.6631 10.2454 -494.758
12.7596 10.2063 -492.85001
11.8745 10.1779 -491.44601
11.0009 10.1552 -490.323
10.1372 10.1373 -489.45401
9.2781096 10.121 -488.66299
8.4236803 10.1076 -488.034
7.5721502 10.0955 -487.478
6.7235198 10.0848 -486.979
5.8785801 10.0769 -486.60901
5.0349302 10.069 -486.23901
4.19346 10.0639 -485.97501
3.35324 10.0606 -485.763
2.5137501 10.0573 -485.54999
1.67553 10.0558 -485.46399
0.83764398 10.0543 -485.39401
-1.89184e-006 10.0529 -485.32501
-0.83764797 10.0542 -485.39401
-1.67553 10.0557 -485.46399
-2.5137601 10.0576 -485.54999
-3.35324 10.0609 -485.763
-4.19346 10.0642 -485.97501
-5.0349302 10.0688 -486.23901
-5.8785901 10.0767 -486.60901
-6.7235298 10.0846 -486.979
-7.5721502 10.0953 -487.478
-8.4236803 10.1075 -488.034
-9.2781096 10.1211 -488.66299
-10.1372 10.1374 -489.45401
-11.0009 10.1552 -490.323
-11.8745 10.1778 -491.44601
-12.7596 10.2064 -492.85001
-13.6631 10.2454 -494.758
13.6631 11.0993 -494.758
12.7596 11.0569 -492.85001
11.8745 11.0261 -491.44601
11.0009 11.0015 -490.323
10.1372 10.982 -489.45401
9.2781096 10.9643 -488.66299
8.4236803 10.9499 -488.034
7.5721502 10.9368 -487.478
6.7235198 10.9253 -486.979
5.8785801 10.9168 -486.60901
5.0349302 10.9083 -486.23901
4.19346 10.9026 -485.97501
3.35324 10.8989 -485.763
2.5137501 10.8953 -485.54999
1.67553 10.8936 -485.46399
0.83764398 10.8921 -485.39401
-1.89184e-006 10.8905 -485.32501
-0.83764797 10.8919 -485.39401
-1.67553 10.8935 -485.46399
-2.5137601 10.8955 -485.54999
-3.35324 10.8994 -485.763
-4.19346 10.903 -485.97501
-5.0349302 10.908 -486.23901
-5.8785901 10.9165 -486.60901
-6.7235298 10.9251 -486.979
-7.5721502 10.9366 -487.478
-8.4236803 10.9497 -488.034
-9.2781096 10.9644 -488.66299
-10.1372 10.9821 -489.45401
-11.0009 11.0014 -490.323
-11.8745 11.026 -491.44601
-12.7596 11.057 -492.85001
-13.6631 11.0994 -494.758
13.6631 11.9532 -494.758
12.7596 11.9074 -492.85001
11.8745 11.8742 -491.44601
11.0009 11.8477 -490.323
10.1372 11.8267 -489.45401
9.2781096 11.8076 -488.66299
8.4236803 11.7922 -488.034
7.5721502 11.7781 -487.478
6.7235198 11.7659 -486.979
5.8785801 11.7567 -486.60901
5.0349302 11.7475 -486.23901
4.19346 11.7413 -485.97501
3.35324 11.7373 -485.763
2.5137501 11.7332 -485.54999
1.67553 11.7315 -485.46399
0.83764398 11.7298 -485.39401
-1.89184e-006 11.7281 -485.32501
-0.83764797 11.7296 -485.39401
-1.67553 11.7313 -485.46399
-2.5137601 11.7335 -485.54999
-3.35324 11.7378 -485.763
-4.19346 11.7418 -485.97501
-5.0349302 11.7472 -486.23901
-5.8785901 11.7564 -486.60901
-6.7235298 11.7656 -486.979
-7.5721502 11.7779 -487.478
-8.4236803 11.792 -488.034
-9.2781096 11.8078 -488.66299
-10.1372 11.8269 -489.45401
-11.0009 11.8476 -490.323
-11.8745 11.8742 -491.44601
-12.7596 11.9076 -492.85001
-13.6631 11.9533 -494.758
13.6631 12.8071 -494.758
12.7596 12.758 -492.85001
11.8745 12.7224 -491.44601
11.0009 12.6939 -490.323
10.1372 12.6714 -489.45401
9.2781096 12.6509 -488.66299
8.4236803 12.6345 -488.034
7.5721502 12.6195 -487.478
6.7235198 12.6064 -486.979
5.8785801 12.5966 -486.60901
5.0349302 12.5868 -486.23901
4.19346 12.58 -485.97501
3.35324 12.5756 -485.763
2.5137501 12.5712 -485.54999
1.67553 12.5693 -485.46399
0.83764398 12.5675 -485.39401
-1.89184e-006 12.5657 -485.32501
-0.83764797 12.5673 -485.39401
-1.67553 12.5691 -485.46399
-2.5137601 12.5714 -485.54999
-3.35324 12.5763 -485.763
-4.19346 12.5807 -485.97501
-5.0349302 12.5864 -486.23901
-5.8785901 12.5962 -486.60901
-6.7235298 12.606 -486.979
-7.5721502 12.6192 -487.478
-8.4236803 12.6342 -488.034
-9.2781096 12.6512 -488.66299
-10.1372 12.6716 -489.45401
-11.0009 12.6938 -490.323
-11.8745 12.7223 -491.44601
-12.7596 12.7582 -492.85001
-13.6631 12.8072 -494.758
13.6631 13.661 -494.758
12.7596 13.6086 -492.85001
11.8745 13.5706 -491.44601
11.0009 13.5402 -490.323
10.1372 13.5161 -489.45401
9.2781096 13.4943 -488.66299
8.4236803 13.4768 -488.034
7.5721502 13.4608 -487.478
6.7235198 13.4468 -486.979
5.8785801 13.4365 -486.60901
5.0349302 13.426 -486.23901
4.19346 13.4187 -485.97501
3.35324 13.4139 -485.763
2.5137501 13.4091 -485.54999
1.67553 13.4071 -485.46399
0.83764398 13.4052 -485.39401
-1.89184e-006 13.4033 -485.32501
-0.83764797 13.405 -485.39401
-1.67553 13.4069 -485.46399
-2.5137601 13.4094 -485.54999
-3.35324 13.4147 -485.763
-4.19346 13.4195 -485.97501
-5.0349302 13.4257 -486.23901
-5.8785901 13.436 -486.60901
-6.7235298 13.4465 -486.979
-7.5721502 13.4605 -487.478
-8.4236803 13.4765 -488.034
-9.2781096 13.4945 -488.66299
-10.1372 13.5163 -489.45401
-11.0009 13.5401 -490.323
-11.8745 13.5705 -491.44601
-12.7596 13.6088 -492.85001
-13.6631 13.6612 -494.758
13.6631 14.5149 -494.758
12.7596 14.4592 -492.85001
11.8745 14.4188 -491.44601
11.0009 14.3864 -490.323
10.1372 14.3608 -489.45401
9.2781096 14.3376 -488.66299
8.4236803 14.3191 -488.034
7.5721502 14.3021 -487.478
6.7235198 14.2873 -486.979
5.8785801 14.2764 -486.60901
5.0349302 14.2653 -486.23901
4.19346 14.2573 -485.97501
3.35324 14.2522 -485.763
2.5137501 14.2471 -485.54999
1.67553 14.245 -485.46399
0.83764398 14.2429 -485.39401
-1.89184e-006 14.2409 -485.32501
-0.83764797 14.2426 -485.39401
-1.67553 14.2447 -485.46399
-2.5137601 14.2473 -485.54999
-3.35324 14.2531 -485.763
-4.19346 14.2583 -485.97501
-5.0349302 14.265 -486.23901
-5.8785901 14.2759 -486.60901
-6.7235298 14.287 -486.979
-7.5721502 14.3018 -487.478
-8.4236803 14.3187 -488.034
-9.2781096 14.3379 -488.66299
-10.1372 14.3611 -489.45401
-11.0009 14.3863 -490.323
-11.8745 14.4186 -491.44601
-12.7596 14.4594 -492.85001
-13.6631 14.5151 -494.758
13.6631 15.3688 -494.758
12.7596 15.3098 -492.85001
11.8745 15.2669 -491.44601
11.0009 15.2326 -490.323
10.1372 15.2054 -489.45401
9.2781096 15.1809 -488.66299
8.4236803 15.1614 -488.034
7.5721502 15.1435 -487.478
6.7235198 15.1278 -486.979
5.8785801 15.1163 -486.60901
5.0349302 15.1046 -486.23901
4.19346 15.096 -485.97501
3.35324 15.0905 -485.763
2.5137501 15.085 -485.54999
1.67553 15.0828 -485.46399
0.83764398 15.0807 -485.39401
-1.89184e-006 15.0785 -485.32501
-0.83764797 15.0803 -485.39401
-1.67553 15.0825 -485.46399
-2.5137601 15.0853 -485.54999
-3.35324 15.0916 -485.763
-4.19346 15.0971 -485.97501
-5.0349302 15.1042 -486.23901
-5.8785901 15.1157 -486.60901
-6.7235298 15.1275 -486.979
-7.5721502 15.143 -487.478
-8.4236803 15.161 -488.034
-9.2781096 15.1812 -488.66299
-10.1372 15.2058 -489.45401
-11.0009 15.2325 -490.323
-11.8745 15.2668 -491.44601
-12.7596 15.31 -492.85001
-13.6631 15.369 -494.758
13.6631 16.2227 -494.758
12.7596 16.1604 -492.85001
11.8745 16.115101 -491.44601
11.0009 16.078899 -490.323
10.1372 16.0501 -489.45401
9.2781096 16.0243 -488.66299
8.4236803 16.0037 -488.034
7.5721502 15.9848 -487.478
6.7235198 15.9683 -486.979
5.8785801 15.9562 -486.60901
5.0349302 15.9438 -486.23901
4.19346 15.9347 -485.97501
3.35324 15.9288 -485.763
2.5137501 15.923 -485.54999
1.67553 15.9207 -485.46399
0.83764398 15.9184 -485.39401
-1.89184e-006 15.9161 -485.32501
-0.83764797 15.918 -485.39401
-1.67553 15.9203 -485.46399
-2.5137601 15.9232 -485.54999
-3.35324 15.93 -485.763
-4.19346 15.9359 -485.97501
-5.0349302 15.9435 -486.23901
-5.8785901 15.9555 -486.60901
-6.7235298 15.9679 -486.979
-7.5721502 15.9843 -487.478
-8.4236803 16.003201 -488.034
-9.2781096 16.0245 -488.66299
-10.1372 16.050501 -489.45401
-11.0009 16.0788 -490.323
-11.8745 16.115 -491.44601
-12.7596 16.160601 -492.85001
-13.6631 16.2229 -494.758
13.6631 17.076599 -494.758
12.7596 17.0109 -492.85001
11.8745 16.963301 -491.44601
11.0009 16.9251 -490.323
10.1372 16.8948 -489.45401
9.2781096 16.867599 -488.66299
8.4236803 16.846001 -488.034
7.5721502 16.826099 -487.478
6.7235198 16.808701 -486.979
5.8785801 16.796101 -486.60901
5.0349302 16.7831 -486.23901
4.19346 16.773399 -485.97501
3.35324 16.7672 -485.763
2.5137501 16.7609 -485.54999
1.67553 16.758499 -485.46399
0.83764398 16.7561 -485.39401
-1.89184e-006 16.7537 -485.32501
-0.83764797 16.755699 -485.39401
-1.67553 16.758101 -485.46399
-2.5137601 16.7612 -485.54999
-3.35324 16.768499 -485.763
-4.19346 16.7747 -485.97501
-5.0349302 16.7827 -486.23901
-5.8785901 16.795401 -486.60901
-6.7235298 16.808399 -486.979
-7.5721502 16.8256 -487.478
-8.4236803 16.845501 -488.034
-9.2781096 16.867901 -488.66299
-10.1372 16.8953 -489.45401
-11.0009 16.924999 -490.323
-11.8745 16.9631 -491.44601
-12.7596 17.011299 -492.85001
-13.6631 17.0769 -494.758
13.6631 17.9305 -494.758
12.7596 17.8615 -492.85001
11.8745 17.811399 -491.44601
11.0009 17.771299 -490.323
10.1372 17.7395 -489.45401
9.2781096 17.710899 -488.66299
8.4236803 17.688299 -488.034
7.5721502 17.6675 -487.478
6.7235198 17.6492 -486.979
5.8785801 17.636 -486.60901
5.0349302 17.622299 -486.23901
4.19346 17.6122 -485.97501
3.35324 17.605499 -485.763
2.5137501 17.5989 -485.54999
1.67553 17.596399 -485.46399
0.83764398 17.5938 -485.39401
-1.89184e-006 17.591299 -485.32501
-0.83764797 17.593399 -485.39401
-1.67553 17.5959 -485.46399
-2.5137601 17.5991 -485.54999
-3.35324 17.606899 -485.763
-4.19346 17.613501 -485.97501
-5.0349302 17.622 -486.23901
-5.8785901 17.635201 -486.60901
-6.7235298 17.648899 -486.979
-7.5721502 17.666901 -487.478
-8.4236803 17.6877 -488.034
-9.2781096 17.711201 -488.66299
-10.1372 17.74 -489.45401
-11.0009 17.771299 -490.323
-11.8745 17.8113 -491.44601
-12.7596 17.8619 -492.85001
-13.6631 17.930799 -494.758
13.6631 18.784401 -494.758
12.7596 18.712099 -492.85001
11.8745 18.659599 -491.44601
11.0009 18.617599 -490.323
10.1372 18.5842 -489.45401
9.2781096 18.5543 -488.66299
8.4236803 18.5305 -488.034
7.5721502 18.508801 -487.478
6.7235198 18.4897 -486.979
5.8785801 18.475901 -486.60901
5.0349302 18.461599 -486.23901
4.19346 18.451 -485.97501
3.35324 18.4438 -485.763
2.5137501 18.4368 -485.54999
1.67553 18.4342 -485.46399
0.83764398 18.431601 -485.39401
-1.89184e-006 18.4289 -485.32501
-0.83764797 18.431101 -485.39401
-1.67553 18.433701 -485.46399
-2.5137601 18.437099 -485.54999
-3.35324 18.445299 -485.763
-4.19346 18.452299 -485.97501
-5.0349302 18.4613 -486.23901
-5.8785901 18.475 -486.60901
-6.7235298 18.4893 -486.979
-7.5721502 18.5082 -487.478
-8.4236803 18.5299 -488.034
-9.2781096 18.554501 -488.66299
-10.1372 18.5847 -489.45401
-11.0009 18.6175 -490.323
-11.8745 18.659401 -491.44601
-12.7596 18.7125 -492.85001
-13.6631 18.7847 -494.758
13.6631 19.6383 -494.758
12.7596 19.5627 -492.85001
11.8745 19.507799 -491.44601
11.0009 19.4638 -490.323
10.1372 19.4289 -489.45401
9.2781096 19.3976 -488.66299
8.4236803 19.372801 -488.034
7.5721502 19.3501 -487.478
6.7235198 19.3302 -486.979
5.8785801 19.3158 -486.60901
5.0349302 19.3009 -486.23901
4.19346 19.289801 -485.97501
3.35324 19.282101 -485.763
2.5137501 19.274799 -485.54999
1.67553 19.271999 -485.46399
0.83764398 19.2693 -485.39401
-1.89184e-006 19.2665 -485.32501
-0.83764797 19.2687 -485.39401
-1.67553 19.2715 -485.46399
-2.5137601 19.275 -485.54999
-3.35324 19.2838 -485.763
-4.19346 19.2911 -485.97501
-5.0349302 19.300501 -486.23901
-5.8785901 19.314899 -486.60901
-6.7235298 19.3298 -486.979
-7.5721502 19.349501 -487.478
-8.4236803 19.3722 -488.034
-9.2781096 19.3978 -488.66299
-10.1372 19.429501 -489.45401
-11.0009 19.463699 -490.323
-11.8745 19.507601 -491.44601
-12.7596 19.563101 -492.85001
-13.6631 19.638599 -494.758
13.6631 20.492201 -494.758
12.7596 20.4133 -492.85001
11.8745 20.3559 -491.44601
11.0009 20.310101 -490.323
10.1372 20.2736 -489.45401
9.2781096 20.2409 -488.66299
8.4236803 20.215 -488.034
7.5721502 20.1915 -487.478
6.7235198 20.170601 -486.979
5.8785801 20.155701 -486.60901
5.0349302 20.1401 -486.23901
4.19346 20.128599 -485.97501
3.35324 20.120399 -485.763
2.5137501 20.1127 -485.54999
1.67553 20.1098 -485.46399
0.83764398 20.107 -485.39401
-1.89184e-006 20.104099 -485.32501
-0.83764797 20.1064 -485.39401
-1.67553 20.109301 -485.46399
-2.5137601 20.113001 -485.54999
-3.35324 20.1222 -485.763
-4.19346 20.1299 -485.97501
-5.0349302 20.139799 -486.23901
-5.8785901 20.154699 -486.60901
-6.7235298 20.1703 -486.979
-7.5721502 20.190901 -487.478
-8.4236803 20.214399 -488.034
-9.2781096 20.241199 -488.66299
-10.1372 20.2742 -489.45401
-11.0009 20.309999 -490.323
-11.8745 20.355801 -491.44601
-12.7596 20.4137 -492.85001
-13.6631 20.4925 -494.758
13.6631 21.3461 -494.758
12.7596 21.263901 -492.85001
11.8745 21.2041 -491.44601
11.0009 21.1563 -490.323
10.1372 21.118299 -489.45401
9.2781096 21.0842 -488.66299
8.4236803 21.057301 -488.034
7.5721502 21.032801 -487.478
6.7235198 21.011101 -486.979
5.8785801 20.9956 -486.60901
5.0349302 20.979401 -486.23901
4.19346 20.9674 -485.97501
3.35324 20.958799 -485.763
2.5137501 20.950701 -485.54999
1.67553 20.947599 -485.46399
0.83764398 20.9447 -485.39401
-1.89184e-006 20.9417 -485.32501
-0.83764797 20.944099 -485.39401
-1.67553 20.9471 -485.46399
-2.5137601 20.950899 -485.54999
-3.35324 20.960699 -485.763
-4.19346 20.9687 -485.97501
-5.0349302 20.979 -486.23901
-5.8785901 20.994499 -486.60901
-6.7235298 21.010799 -486.979
-7.5721502 21.0322 -487.478
-8.4236803 21.0567 -488.034
-9.2781096 21.084499 -488.66299
-10.1372 21.118999 -489.45401
-11.0009 21.1562 -490.323
-11.8745 21.203899 -491.44601
